ply
format ascii 1.0
element vertex 1249
property float x
property float y
property float z
property uchar red
property uchar green
property uchar blue
end_header
62.484 -4.9709 -4.46801  255 255 255
-32.4316 39.236 -79.8566  255 255 255
5.68159 73.6477 -78.1925  255 255 255
-32.1953 -58.0803 36.1085  255 255 255
-2.52057 -39.7326 37.243  255 255 255
34.3116 66.6467 -102.259  255 255 255
-31.5767 37.1435 -81.4475  255 255 255
-6.48252 53.3532 -86.0644  255 255 255
-34.6634 -59.3191 37.6644  255 255 255
-35.3 -54.1291 31.043  255 255 255
-25.7281 -58.1467 36.1934  255 255 255
68.3669 -25.1427 -2.24447  255 255 255
-32.0469 -56.3873 33.986  255 255 255
-31.6456 -57.1374 35.0671  255 255 255
58.9612 -14.731 -18.0503  255 255 255
-20.171 11.2398 -52.1571  255 255 255
-23.7163 -1.60751 13.4421  255 255 255
59.8943 -15.6224 -16.1023  255 255 255
56.2198 1.07635 -17.3004  255 255 255
-88.4503 32.6735 -48.4755  255 255 255
19.8049 71.8749 -89.2794  255 255 255
36.9622 70.2281 -100.868  255 255 255
66.7018 45.2558 -95.3165  255 255 255
56.695 39.4683 -86.08  255 255 255
27.3529 34.3408 -81.6633  255 255 255
33.9148 25.9618 -70.3664  255 255 255
70.7922 74.9277 -118.577  255 255 255
29.4045 22.7949 -66.4077  255 255 255
33.4435 72.1709 -98.4877  255 255 255
21.5168 68.0001 -90.7741  255 255 255
32.2084 40.6701 -90.284  255 255 255
-41.0738 42.2481 -72.0331  255 255 255
43.3851 44.8681 -94.1414  255 255 255
27.2496 40.4465 -89.3065  255 255 255
32.3044 69.3196 -99.4876  255 255 255
27.1129 39.1343 -86.7951  255 255 255
-47.1177 55.5173 -57.2843  255 255 255
-80.5274 32.5406 -58.6495  255 255 255
-75.8336 30.7348 -61.339  255 255 255
26.6472 80.3655 -86.5208  255 255 255
15.981 -27.106 40.2029  255 255 255
-31.8671 -55.8568 33.1169  255 255 255
-40.2517 -51.3544 27.5405  255 255 255
-8.40299 -6.90208 37.6708  255 255 255
16.423 -13.2599 32.2648  255 255 255
15.892 -0.570824 25.5935  255 255 255
59.9842 -13.5493 -17.8131  255 255 255
24.9081 -34.5066 23.612  255 255 255
-19.7133 -24.1262 36.9924  255 255 255
-81.1505 7.95142 -49.5653  255 255 255
48.7101 -46.4888 21.9404  255 255 255
6.46189 -6.0514 36.7017  255 255 255
13.9887 53.0641 -99.1524  255 255 255
16.709 -40.4615 31.184  255 255 255
-30.2939 -6.54514 14.4672  255 255 255
61.6008 21.8425 -41.3562  255 255 255
-48.9755 -26.266 -4.82636  255 255 255
59.4822 -13.7128 -17.4535  255 255 255
59.1178 -49.1347 25.8812  255 255 255
5.48777 -29.6872 43.857  255 255 255
28.7029 44.6812 -95.3266  255 255 255
16.6965 -27.6139 40.3253  255 255 255
-5.99856 -3.36711 36.644  255 255 255
34.0386 -54.304 31.4492  255 255 255
-43.8675 44.5432 -67.5911  255 255 255
12.4949 -32.7889 38.0717  255 255 255
-51.3756 46.521 -61.0515  255 255 255
23.768 -21.2412 32.6556  255 255 255
53.667 -44.9163 19.3915  255 255 255
-6.13627 -4.98951 37.5002  255 255 255
29.2298 41.6966 -90.2175  255 255 255
59.7754 -13.7513 -18.0728  255 255 255
22.5479 -27.8337 32.2593  255 255 255
9.5477 -0.570922 32.1835  255 255 255
-50.8138 -27.9339 -2.56064  255 255 255
12.0038 -33.2197 37.9532  255 255 255
-6.56873 -13.0718 39.5208  255 255 255
-23.8534 -0.157932 11.6605  255 255 255
-56.7578 -30.1263 -0.331872  255 255 255
52.1687 -47.3787 23.1303  255 255 255
61.5322 -1.6012 -4.5675  255 255 255
54.3411 -47.7835 23.6849  255 255 255
-37.8452 7.57299 -47.96  255 255 255
-34.8744 -53.7425 30.3354  255 255 255
59.4665 39.9471 -35.168  255 255 255
58.1618 -11.4024 -20.2822  255 255 255
58.7273 34.6595 -38.8952  255 255 255
-5.06162 -28.5345 42.5583  255 255 255
18.3774 -12.2654 29.8852  255 255 255
4.88028 -40.7349 35.9414  255 255 255
-6.68369 -7.22213 38.3178  255 255 255
-5.30728 6.19068 22.448  255 255 255
55.7898 -50.2347 27.0235  255 255 255
-32.8525 -57.1134 34.7135  255 255 255
59.2426 0.238606 -9.3185  255 255 255
-5.13637 15.2297 -57.1339  255 255 255
-73.9681 -1.43629 -37.7414  255 255 255
14.0577 -10.616 34.4369  255 255 255
13.4251 -16.0166 35.3482  255 255 255
-2.27006 3.35528 29.2294  255 255 255
15.7781 -0.558987 26.2912  255 255 255
6.19322 -29.4169 43.3228  255 255 255
7.99313 -38.7509 35.9877  255 255 255
-37.4895 -53.2892 29.9604  255 255 255
-7.39753 -18.2145 38.9715  255 255 255
56.0596 30.9031 -49.4283  255 255 255
-34.8574 -53.714 30.4556  255 255 255
-17.7659 2.49215 22.9664  255 255 255
-6.59201 -4.88213 37.3042  255 255 255
0.808144 -6.57553 38.7564  255 255 255
13.6349 -38.1625 33.5514  255 255 255
-32.7507 -57.5106 35.3276  255 255 255
3.83674 -7.26365 38.1808  255 255 255
13.9116 -40.5652 31.4922  255 255 255
-38.2477 -52.9313 32.0487  255 255 255
-28.5387 -21.155 32.539  255 255 255
-37.8599 6.77635 -46.5828  255 255 255
-26.0619 -58.0758 36.1569  255 255 255
-26.1384 -3.79611 16.5429  255 255 255
-32.138 -11.1727 20.268  255 255 255
-31.9093 -14.8411 25.4318  255 255 255
2.33491 -3.43286 36.878  255 255 255
-15.4957 -2.5989 31.2731  255 255 255
16.3469 -25.0116 37.7341  255 255 255
-30.8907 -57.3584 35.7106  255 255 255
12.1543 -5.73651 33.616  255 255 255
-11.9666 -6.34126 36.164  255 255 255
-72.4401 -0.498918 -39.1643  255 255 255
10.9153 -6.07556 34.8413  255 255 255
24.5958 -56.4891 34.6006  255 255 255
35.6503 69.4336 -101.049  255 255 255
35.6503 69.4336 -101.049  255 255 255
34.9592 67.4488 -101.736  255 255 255
68.1467 71.8229 -120.13  255 255 255
16.0659 62.1734 -91.6491  255 255 255
32.5427 60.0029 -106.504  255 255 255
-80.9749 32.8817 -58.573  255 255 255
-15.7864 3.98308 23.4455  255 255 255
-26.026 -10.2884 24.8757  255 255 255
64.4007 -15.9378 -5.48634  255 255 255
12.6302 -26.901 40.1021  255 255 255
58.2135 -39.8053 13.8478  255 255 255
61.675 -48.7133 25.4041  255 255 255
20.4693 65.9731 -93.4424  255 255 255
68.2814 74.1663 -117.511  255 255 255
-18.3127 58.2555 -73.4809  255 255 255
-9.63232 58.1208 -80.0429  255 255 255
29.173 61.9352 -101.815  255 255 255
9.15759 57.8984 -91.9394  255 255 255
31.3674 55.8998 -108.026  255 255 255
-1.27796 16.2375 -58.3758  255 255 255
35.0488 12.4474 -51.629  255 255 255
-78.4161 3.29756 -43.8295  255 255 255
-70.1215 -2.16182 -35.6474  255 255 255
2.63507 -3.54082 36.9826  255 255 255
61.1361 -14.686 -13.7672  255 255 255
39.0994 -39.4989 14.5739  255 255 255
54.2834 -43.3495 18.2904  255 255 255
65.0993 -44.853 20.4928  255 255 255
30.5104 -55.9177 33.7974  255 255 255
-2.04851 -61.4298 40.3239  255 255 255
-81.652 32.5318 -59.9075  255 255 255
33.9875 39.1425 -87.9546  255 255 255
60.487 24.5189 -41.5135  255 255 255
-2.13155 21.988 -65.2946  255 255 255
-76.8707 20.3339 -65.1764  255 255 255
57.3302 13.5034 -6.11506  255 255 255
-82.3857 10.7187 -52.5879  255 255 255
-21.0365 9.60059 -49.9283  255 255 255
-72.3608 0.631311 -39.6599  255 255 255
-10.2647 0.24428 32.3575  255 255 255
-9.70824 -4.47094 36.1409  255 255 255
59.4344 -10.8574 -14.5642  255 255 255
-25.7067 -9.91096 24.6019  255 255 255
61.948 -11.6989 -10.0938  255 255 255
61.6262 -11.6622 -9.37103  255 255 255
-31.3934 -16.6192 27.3804  255 255 255
-5.00749 -38.9467 37.24  255 255 255
67.0709 -44.9667 20.7882  255 255 255
25.0365 -56.7861 34.3741  255 255 255
-77.3322 3.11066 -43.6183  255 255 255
31.2198 59.0794 -105.205  255 255 255
-7.29392 -20.5254 38.4886  255 255 255
-39.5236 14.9337 -57.5294  255 255 255
50.0303 -48.4488 24.8692  255 255 255
29.0198 39.6227 -87.2218  255 255 255
51.7982 -47.5931 23.371  255 255 255
-79.8459 31.9604 -58.9111  255 255 255
53.7495 -46.0652 21.9153  255 255 255
48.9859 -30.333 0.8124  255 255 255
-39.9476 8.3314 -49.0648  255 255 255
7.11943 4.93424 26.1574  255 255 255
59.9674 -14.4585 -17.7586  255 255 255
17.1675 -27.5988 41.0788  255 255 255
1.31834 16.3047 -58.0961  255 255 255
-9.44816 -14.7068 38.7273  255 255 255
-35.3509 4.31542 -44.1247  255 255 255
-15.2094 3.85298 24.3962  255 255 255
52.0175 -48.7165 25.0724  255 255 255
16.2509 -59.4196 37.9947  255 255 255
33.426 31.2344 -77.3634  255 255 255
33.426 31.2344 -77.3635  255 255 255
-22.6576 0.21978 11.2202  255 255 255
61.637 -15.2437 -13.9646  255 255 255
57.496 -40.191 13.839  255 255 255
-25.6602 30.7264 -77.5542  255 255 255
1.62573 25.0207 -69.8281  255 255 255
0.978291 17.796 -60.7354  255 255 255
32.1885 8.24673 -47.3413  255 255 255
-5.19685 -4.17257 37.2818  255 255 255
-31.7249 -7.46932 15.3546  255 255 255
-59.3686 -13.3448 -21.2223  255 255 255
23.5053 -9.64621 23.1745  255 255 255
12.1913 -10.945 35.5849  255 255 255
32.8401 45.8051 -97.136  255 255 255
58.2427 26.9264 -44.7589  255 255 255
-50.1574 -26.0386 -4.98377  255 255 255
57.506 -40.6879 15.4767  255 255 255
57.7867 -42.9004 17.3159  255 255 255
-14.6822 -6.73917 34.589  255 255 255
-69.3344 -13.9296 -21.6048  255 255 255
-2.07077 -61.3369 40.5732  255 255 255
-2.14226 -60.9641 40.3162  255 255 255
56.7702 31.6613 -47.1536  255 255 255
58.6701 -13.4997 -19.7048  255 255 255
56.3977 -43.7833 18.2156  255 255 255
10.9139 55.2816 -95.5261  255 255 255
-4.38272 15.5994 -57.4618  255 255 255
64.0064 -12.0397 -5.20317  255 255 255
-11.374 -13.9525 37.8175  255 255 255
55.378 -42.2759 16.6994  255 255 255
38.4592 -51.7077 28.6287  255 255 255
30.1698 44.9324 -93.4831  255 255 255
60.3402 -6.45987 -10.7322  255 255 255
5.30188 -15.3862 39.1308  255 255 255
57.5788 28.3106 -47.2197  255 255 255
-48.2048 -8.01881 -28.1173  255 255 255
38.977 18.1214 -59.1941  255 255 255
-80.1271 3.85877 -44.4917  255 255 255
5.76304 -9.00208 38.2925  255 255 255
0.579368 -29.2951 43.4426  255 255 255
-42.0336 -54.7709 31.6379  255 255 255
24.5495 38.3428 -86.5903  255 255 255
-77.6003 3.89456 -45.3539  255 255 255
8.51952 -43.0978 29.3958  255 255 255
-36.912 -52.0724 28.1929  255 255 255
39.2207 16.6279 -57.2586  255 255 255
40.9621 15.6297 -56.6037  255 255 255
38.9005 -48.748 24.5308  255 255 255
-37.1651 -52.6339 29.2846  255 255 255
-21.0639 -23.1315 35.7914  255 255 255
58.321 45.0177 -33.6116  255 255 255
-78.1969 30.9507 -61.5217  255 255 255
-53.5431 36.9391 -66.8548  255 255 255
-79.0403 8.69275 -50.3175  255 255 255
-41.6387 17.2474 -60.6872  255 255 255
-60.7942 16.2084 -58.8887  255 255 255
-65.3548 34.6777 -61.8266  255 255 255
-75.8861 38.6281 -58.1844  255 255 255
-56.8086 -6.63111 -31.1752  255 255 255
-67.0372 41.2291 -54.4915  255 255 255
-75.1282 28.1379 -60.8281  255 255 255
-81.3722 8.52508 -50.4918  255 255 255
-69.3231 -10.626 -26.03  255 255 255
44.5109 -44.9011 18.8876  255 255 255
-7.99468 -61.2276 40.1616  255 255 255
-34.3597 -59.0844 37.4177  255 255 255
25.4357 -17.0563 27.3358  255 255 255
-43.4887 -52.6215 28.6932  255 255 255
1.34438 -8.62973 39.1628  255 255 255
-79.2973 -57.8465 37.6178  255 255 255
12.2302 -8.08574 34.9219  255 255 255
-37.599 -24.9503 8.27375  255 255 255
-18.2574 -24.8173 37.947  255 255 255
-5.30135 -42.1097 34.9245  255 255 255
-27.7972 -20.0689 32.013  255 255 255
10.2403 -26.7518 40.2748  255 255 255
-7.23459 -30.1199 44.6204  255 255 255
-38.3572 -57.8195 35.7544  255 255 255
2.63271 -19.8527 38.8671  255 255 255
-6.41183 -35.7868 40.8643  255 255 255
1.54612 -41.4177 35.3161  255 255 255
-8.74368 -29.1356 43.4797  255 255 255
-77.5714 -57.1116 36.1335  255 255 255
5.63787 -30.54 45.3993  255 255 255
-3.52931 -13.5797 40.0858  255 255 255
-44.4724 -60.883 39.8777  255 255 255
0.215413 -12.307 40.1934  255 255 255
1.51552 -11.1737 39.7331  255 255 255
-28.3516 -59.6977 38.866  255 255 255
-18.2574 -24.8173 37.947  255 255 255
12.2413 -8.10014 34.852  255 255 255
-95.2016 -52.17 30.9268  255 255 255
28.8197 -6.65692 13.368  255 255 255
8.32694 -35.3202 38.5502  255 255 255
5.71337 -8.83166 38.1982  255 255 255
-3.44093 -16.7841 39.9424  255 255 255
-2.55969 -9.66214 39.5817  255 255 255
-0.927396 -22.9228 41.1083  255 255 255
-39.3777 -54.1384 31.0457  255 255 255
59.5866 -13.1686 -18.0506  255 255 255
1.75407 -15.1849 39.9292  255 255 255
-35.4521 -58.4402 36.0539  255 255 255
2.67468 -10.9345 39.6336  255 255 255
10.9121 -11.2933 36.6813  255 255 255
-38.8481 -60.5401 39.0633  255 255 255
-32.0039 -57.6395 35.849  255 255 255
2.30585 -9.11451 39.1776  255 255 255
-44.2864 -54.946 32.0431  255 255 255
-6.57605 -13.0684 39.5272  255 255 255
-18.7649 -26.992 41.0408  255 255 255
-8.92968 -28.0744 41.9819  255 255 255
-7.10857 -30.3391 44.7769  255 255 255
64.0573 -45.3917 21.0431  255 255 255
-33.8781 -59.3015 37.5562  255 255 255
-26.9838 -59.6235 37.9687  255 255 255
12.8077 -16.8159 35.3675  255 255 255
8.73141 -23.8898 39.2861  255 255 255
-86.554 -47.7572 21.4322  255 255 255
13.2148 -29.8261 39.685  255 255 255
8.28945 -37.154 36.8535  255 255 255
57.8481 -41.5315 15.6662  255 255 255
-35.2656 -59.1335 37.1469  255 255 255
-23.2501 -61.0199 40.0089  255 255 255
63.8293 -16.4064 -8.45992  255 255 255
15.6266 -21.5848 36.0345  255 255 255
13.3534 -27.3635 40.6301  255 255 255
-6.14451 -42.1939 35.0304  255 255 255
-32.7507 -57.5106 35.3276  255 255 255
57.8261 -41.7624 16.8343  255 255 255
6.40259 -16.8415 38.7495  255 255 255
6.10201 -16.6454 38.8471  255 255 255
6.4153 -17.5994 38.513  255 255 255
10.4166 -32.0044 39.73  255 255 255
-34.6554 -59.3089 37.693  255 255 255
-30.9515 -56.55 34.4056  255 255 255
5.99238 -19.8863 38.2268  255 255 255
-7.01354 -29.9797 44.5879  255 255 255
-24.3964 -58.3773 36.3538  255 255 255
-15.8102 -15.9094 35.029  255 255 255
-8.39256 -15.2495 39.1313  255 255 255
12.5212 -9.4159 34.9317  255 255 255
16.4205 -26.6289 39.7836  255 255 255
0.259558 -31.1029 43.2357  255 255 255
-31.2916 -59.6834 38.0606  255 255 255
-27.0306 -60.214 38.6661  255 255 255
-27.0315 -60.2071 38.6608  255 255 255
-50.4374 -33.19 4.02801  255 255 255
8.09899 -28.0197 41.7907  255 255 255
0.5783 -29.2794 43.4702  255 255 255
-37.9541 -51.6508 27.9902  255 255 255
4.70547 -42.8382 34.5821  255 255 255
61.1907 -41.7424 16.3976  255 255 255
-32.3426 -56.0234 33.4522  255 255 255
11.5307 -8.19898 35.2659  255 255 255
21.4262 -18.3304 31.2742  255 255 255
-1.19987 -21.5267 39.4089  255 255 255
9.16075 -27.8423 41.7603  255 255 255
13.6141 -39.0096 32.8035  255 255 255
6.64838 -39.008 37.1346  255 255 255
14.2786 -39.5601 31.8182  255 255 255
1.05375 -40.8218 35.921  255 255 255
7.36234 -41.0714 34.7491  255 255 255
57.5621 -42.3921 16.1985  255 255 255
-25.9091 -58.5581 36.8058  255 255 255
15.7698 -8.36545 31.9919  255 255 255
15.699 -8.34283 32.3055  255 255 255
17.0787 -8.45689 30.6014  255 255 255
6.10753 -31.1383 44.4931  255 255 255
-31.4117 -58.9797 37.1863  255 255 255
-27.959 -60.044 38.3696  255 255 255
-10.6149 -28.8587 42.8731  255 255 255
-39.0369 -54.8694 31.9018  255 255 255
23.0168 -18.19 29.4758  255 255 255
-27.5652 -59.5913 38.0475  255 255 255
-7.46354 -29.4951 43.9979  255 255 255
16.5757 -33.3116 35.4659  255 255 255
23.3512 -31.5166 28.1696  255 255 255
18.8459 -30.9919 35.2957  255 255 255
-29.7528 -57.8708 35.5815  255 255 255
48.7238 -30.6495 0.944221  255 255 255
-41.3243 -54.4381 31.1976  255 255 255
6.61098 -60.6828 39.2382  255 255 255
42.3514 -44.197 19.1796  255 255 255
49.0101 -50.2365 27.887  255 255 255
4.39816 -12.0157 39.4127  255 255 255
-26.8922 -58.1094 36.2214  255 255 255
59.3488 -9.44073 -12.9006  255 255 255
-0.782328 -14.8619 40.1853  255 255 255
-31.2327 -57.7296 35.6145  255 255 255
68.7689 -25.619 -2.28274  255 255 255
2.74396 -11.9187 39.6245  255 255 255
46.1924 80.1162 -99.7216  255 255 255
56.3366 83.723 -103.318  255 255 255
34.8724 65.9911 -102.942  255 255 255
6.67988 68.8106 -84.3551  255 255 255
33.9734 64.5965 -103.275  255 255 255
58.2998 66.762 -116.879  255 255 255
65.6423 74.9162 -115.291  255 255 255
47.4021 82.3775 -98.5925  255 255 255
35.9509 80.3325 -93.5033  255 255 255
34.0658 63.1507 -103.67  255 255 255
-3.60382 75.0712 -71.4627  255 255 255
64.2563 67.5903 -120.443  255 255 255
82.3147 79.6109 -122.793  255 255 255
69.4736 77.509 -115.789  255 255 255
78.473 70.7692 -126.415  255 255 255
13.3458 67.8691 -87.9705  255 255 255
74.1426 68.5342 -123.435  255 255 255
16.1844 60.5231 -93.2663  255 255 255
33.2171 66.8815 -101.755  255 255 255
9.6646 59.3948 -91.2792  255 255 255
78.7965 70.307 -126.854  255 255 255
62.1542 66.9779 -118.989  255 255 255
37.96 74.767 -91.7764  255 255 255
38.4032 75.4211 -94.0758  255 255 255
18.8824 69.492 -89.4283  255 255 255
56.6863 54.8536 -107.563  255 255 255
15.0483 70.1625 -86.3774  255 255 255
79.1764 72.0875 -129.626  255 255 255
77.9901 72.1117 -129.286  255 255 255
20.7262 73.4531 -87.651  255 255 255
-25.945 59.4925 -68.514  255 255 255
-9.34632 60.6157 -78.1278  255 255 255
-41.4702 60.2747 -57.5743  255 255 255
-14.7626 60.5708 -74.8679  255 255 255
-39.4194 49.976 -66.3737  255 255 255
-14.9345 69.8067 -68.2183  255 255 255
-53.9229 54.2327 -54.1707  255 255 255
-7.43647 -5.13245 37.2505  255 255 255
-5.45811 -6.29639 38.2584  255 255 255
-12.0698 4.72452 25.9351  255 255 255
-25.6889 -3.86654 16.5459  255 255 255
-3.82117 -10.6259 39.7497  255 255 255
-12.7113 -2.17005 32.8772  255 255 255
-16.3435 1.00996 26.6026  255 255 255
-15.2954 0.425898 28.7372  255 255 255
-19.2073 -25.3345 38.6435  255 255 255
-27.821 -19.7357 31.5724  255 255 255
-9.81541 -27.6096 41.4496  255 255 255
-4.46304 -28.9449 43.0241  255 255 255
-9.88102 2.12748 28.3489  255 255 255
58.1552 74.1565 -110.956  255 255 255
-8.22628 63.6794 -76.9489  255 255 255
-37.9204 6.07309 -46.2041  255 255 255
-13.0511 -16.3922 36.7435  255 255 255
13.3364 -7.753 33.7462  255 255 255
13.8821 54.9386 -97.0634  255 255 255
9.31275 65.416 -86.0105  255 255 255
58.3032 75.1739 -110.55  255 255 255
63.2814 -19.0561 -11.789  255 255 255
56.1427 31.9898 -48.5249  255 255 255
-88.2179 19.9049 -58.871  255 255 255
-64.1292 -52.5643 29.2517  255 255 255
-71.289 -54.8201 32.8208  255 255 255
63.5504 -20.0544 -11.4655  255 255 255
-1.94901 74.4764 -72.8296  255 255 255
58.578 40.9476 -35.2005  255 255 255
-64.1292 -52.5643 29.2517  255 255 255
25.9935 75.1206 -90.1236  255 255 255
-55.3472 -2.89629 -35.0576  255 255 255
-14.7803 62.0141 -73.8705  255 255 255
52.8255 86.9606 -99.8388  255 255 255
57.5006 2.51183 -12.3873  255 255 255
-56.0268 -2.95552 -33.637  255 255 255
-29.1973 -58.896 37.1156  255 255 255
-50.0739 -28.2462 -2.32423  255 255 255
-18.2648 -7.67151 31.5592  255 255 255
-23.7585 -23.0045 35.7099  255 255 255
-27.8031 -32.9818 24.9088  255 255 255
-63.5189 -17.7102 -16.035  255 255 255
-68.2808 -7.27116 -30.1217  255 255 255
30.7552 23.5122 -67.3436  255 255 255
59.4643 -13.8611 -18.4598  255 255 255
-48.6588 -6.59044 -29.9244  255 255 255
56.2076 32.0267 -48.7838  255 255 255
6.27959 -27.974 41.7156  255 255 255
-25.7565 -20.6653 32.6055  255 255 255
-30.7276 -55.5318 33.0229  255 255 255
-62.4546 -22.6589 -10.808  255 255 255
-36.6666 -53.5272 30.3393  255 255 255
-23.9025 -62.2604 41.5357  255 255 255
-28.9878 -58.4978 36.7652  255 255 255
-39.0417 -54.3297 31.4307  255 255 255
-34.4112 -55.8508 33.1327  255 255 255
-32.5502 -56.3066 33.8743  255 255 255
52.8161 -50.53 26.4155  255 255 255
-46.4789 45.2159 -65.4325  255 255 255
-0.749649 -31.1472 43.3113  255 255 255
-3.75818 -16.0514 40.0058  255 255 255
-30.9754 65.5922 -60.4971  255 255 255
-19.2135 -12.8363 31.8954  255 255 255
43.7006 80.4419 -97.9051  255 255 255
-57.4703 -6.70091 -30.3158  255 255 255
3.40825 -1.74794 35.1416  255 255 255
-9.19123 -1.49022 34.4582  255 255 255
-50.8185 -27.9607 -2.59632  255 255 255
26.0409 -15.814 25.9493  255 255 255
56.1171 68.6125 -114.181  255 255 255
-19.1833 -11.4367 31.6182  255 255 255
-65.935 -3.06575 -34.385  255 255 255
57.3884 11.6372 -5.09224  255 255 255
45.3826 79.0565 -99.7829  255 255 255
60.8426 26.4894 -39.0732  255 255 255
47.4944 -32.6226 3.45871  255 255 255
57.8632 -11.9043 -21.3239  255 255 255
-4.34752 -8.07187 39.1435  255 255 255
-45.6625 -39.5376 12.0395  255 255 255
1.9576 -48.7277 36.2731  255 255 255
63.6156 -20.0628 -11.4994  255 255 255
22.7493 73.0317 -90.3218  255 255 255
2.69929 -4.01058 37.1313  255 255 255
60.3188 28.5976 -39.1601  255 255 255
-1.03935 -22.4096 40.3959  255 255 255
9.57951 55.3959 -94.4501  255 255 255
-12.6748 4.09983 26.7526  255 255 255
58.9247 -3.55336 -12.7874  255 255 255
-84.4956 12.612 -55.7784  255 255 255
-50.2973 46.8862 -62.3569  255 255 255
-33.2273 26.8034 -72.3488  255 255 255
61.6959 38.7372 -87.3602  255 255 255
-48.6897 32.9902 -75.2035  255 255 255
6.56894 67.2173 -83.651  255 255 255
64.467 74.6875 -114.835  255 255 255
66.772 72.9746 -117.135  255 255 255
3.67604 66.0049 -82.9435  255 255 255
-33.8494 53.6664 -67.7762  255 255 255
-9.41234 57.6761 -80.7318  255 255 255
38.541 64.1283 -107.236  255 255 255
-32.0296 37.6467 -81.4026  255 255 255
-49.5784 31.9395 -76.0488  255 255 255
37.3474 60.176 -108.434  255 255 255
-57.3353 44.6158 -59.1693  255 255 255
40.4377 68.2454 -104.933  255 255 255
38.5411 64.1294 -107.225  255 255 255
-2.0151 54.4015 -87.6251  255 255 255
-35.5309 18.6795 -62.3754  255 255 255
29.5675 63.3035 -101.913  255 255 255
-25.8913 54.2651 -71.6408  255 255 255
60.2677 66.5946 -118.073  255 255 255
-0.158093 66.2258 -80.1418  255 255 255
36.0838 59.3496 -108.193  255 255 255
11.0245 59.0879 -92.2958  255 255 255
-57.7499 47.0615 -56.6196  255 255 255
-12.196 61.4309 -76.0523  255 255 255
-20.4057 61.5524 -70.3423  255 255 255
-12.2298 60.3008 -76.7387  255 255 255
-9.80659 64.7679 -74.9222  255 255 255
40.4005 69.2926 -103.359  255 255 255
65.7705 68.1568 -120.801  255 255 255
59.9935 70.7801 -114.768  255 255 255
-25.204 58.5054 -69.7692  255 255 255
-14.7495 60.5814 -74.8837  255 255 255
-22.7432 58.0392 -71.611  255 255 255
-28.5122 50.887 -73.3545  255 255 255
-36.5788 36.3537 -79.6313  255 255 255
-72.3446 48.8494 -45.8772  255 255 255
47.0573 83.3866 -97.8591  255 255 255
28.9792 54.6255 -106.265  255 255 255
65.9596 68.8535 -120.076  255 255 255
7.16831 66.9692 -84.2922  255 255 255
64.725 66.0388 -121.022  255 255 255
14.2886 -14.4284 34.5211  255 255 255
-22.5427 60.8858 -69.399  255 255 255
59.2072 -6.01932 -13.707  255 255 255
57.2619 -4.11862 -17.6185  255 255 255
62.3574 -18.4252 -13.9975  255 255 255
26.6306 -16.5174 26.6999  255 255 255
-31.8336 -12.3245 21.7872  255 255 255
23.7172 -18.7006 29.5609  255 255 255
56.3138 -0.323163 -17.6426  255 255 255
-3.53523 -17.5632 39.7359  255 255 255
62.0148 -16.4559 -13.0919  255 255 255
-64.2596 -13.7054 -21.5483  255 255 255
-24.7535 -1.56062 13.3084  255 255 255
-29.9841 -8.04919 15.9997  255 255 255
11.1209 1.84348 28.2765  255 255 255
-8.47643 -5.12709 36.4033  255 255 255
-6.99408 -29.5534 44.0661  255 255 255
12.863 0.0173998 28.8482  255 255 255
24.6731 -17.0416 27.4331  255 255 255
12.5163 -20.7257 37.5751  255 255 255
12.3301 -2.53221 31.9591  255 255 255
12.8678 -19.4962 36.227  255 255 255
5.76588 -30.1603 44.3325  255 255 255
-22.5684 -23.449 36.1852  255 255 255
10.7547 -21.0793 38.1613  255 255 255
-8.87254 -2.833 35.2926  255 255 255
6.81487 -14.762 38.629  255 255 255
-32.3959 -54.6834 31.7611  255 255 255
7.71032 -14.839 38.2873  255 255 255
-26.1275 -5.00217 18.0814  255 255 255
3.02103 -5.46802 37.7929  255 255 255
20.2031 -23.6729 35.9072  255 255 255
6.53115 -22.2301 39.9609  255 255 255
12.7383 -3.21004 31.9638  255 255 255
27.5505 19.9957 -62.4078  255 255 255
20.9001 -15.0623 30.3871  255 255 255
-9.85271 -21.4459 39.2212  255 255 255
-49.0044 13.4729 -57.3348  255 255 255
11.2385 2.69242 27.2717  255 255 255
16.3042 -7.81119 31.2972  255 255 255
-61.3236 -28.7644 -1.95293  255 255 255
1.76893 -3.22216 36.699  255 255 255
-0.635532 -28.9618 43.0076  255 255 255
4.33122 -6.17399 37.5741  255 255 255
-7.75187 -27.3555 41.1847  255 255 255
1.89997 -7.58207 38.8084  255 255 255
-42.0884 17.7991 -60.8134  255 255 255
4.8839 -2.16055 35.3668  255 255 255
11.7725 -4.78437 33.377  255 255 255
13.4617 -19.6619 36.6352  255 255 255
12.8462 -5.02853 32.8263  255 255 255
-19.1979 -25.3363 38.7485  255 255 255
-8.95133 -28.0464 42.1382  255 255 255
-26.4491 -31.0939 28.3747  255 255 255
-28.7634 -16.9896 28.113  255 255 255
4.4024 -22.7093 40.8096  255 255 255
8.14502 -6.83985 36.3734  255 255 255
13.3721 -0.488082 28.7862  255 255 255
-0.323328 -21.6209 39.4658  255 255 255
8.2194 -2.53577 33.9472  255 255 255
10.2684 -4.46388 34.3532  255 255 255
22.9917 -19.0122 29.872  255 255 255
9.19393 -9.17518 36.7641  255 255 255
15.8849 -14.1047 33.2273  255 255 255
8.9199 -24.2415 39.0704  255 255 255
23.5786 -17.7472 28.5113  255 255 255
-4.40117 -27.9528 41.8997  255 255 255
10.8512 -20.7865 37.8054  255 255 255
6.10204 -19.8284 38.0655  255 255 255
-6.31076 -21.8471 39.844  255 255 255
25.9043 -20.4392 30.9209  255 255 255
6.80174 -7.51521 37.2787  255 255 255
-31.8965 -54.306 31.5518  255 255 255
6.03135 -22.3088 39.8891  255 255 255
-16.3516 -34.8632 35.5846  255 255 255
14.8057 -10.729 33.6405  255 255 255
6.39741 -21.6579 39.1928  255 255 255
5.76588 -30.1603 44.3325  255 255 255
13.8976 0.862702 26.7021  255 255 255
15.9168 -14.1024 33.0685  255 255 255
-10.0783 -27.6449 41.3725  255 255 255
-28.3674 -21.3309 33.5695  255 255 255
-31.9749 -54.5542 31.6442  255 255 255
15.1743 -26.3947 39.4551  255 255 255
-5.33801 -27.9665 42.0102  255 255 255
-3.43519 -22.5626 40.6424  255 255 255
25.2968 -19.1826 29.9388  255 255 255
14.6681 -2.35466 29.5657  255 255 255
-6.31076 -21.8471 39.844  255 255 255
22.2184 -11.7412 26.1111  255 255 255
16.1945 -12.5418 32.6131  255 255 255
-26.7595 -20.5911 32.3648  255 255 255
10.1302 4.3821 25.1034  255 255 255
-32.919 -54.7759 31.8341  255 255 255
20.0027 -15.1144 30.4409  255 255 255
16.2143 -1.9267 27.0394  255 255 255
17.0931 -4.39634 28.0377  255 255 255
0.828263 -11.0075 39.8311  255 255 255
12.9438 -1.37853 29.9603  255 255 255
22.6188 -2.83813 13.3533  255 255 255
-0.922244 -22.919 41.1045  255 255 255
6.55458 -28.4476 42.3232  255 255 255
27.1374 -16.1098 26.1949  255 255 255
-21.923 -22.8601 35.4489  255 255 255
-15.282 -19.5818 36.966  255 255 255
23.5786 -17.7472 28.5112  255 255 255
-4.26317 -28.2022 42.1872  255 255 255
-53.2329 -10.2147 -25.3725  255 255 255
15.6101 -7.59258 32.1098  255 255 255
16.4988 -10.3954 32.0116  255 255 255
25.414 -22.0029 33.3075  255 255 255
10.5749 -27.9607 41.5272  255 255 255
-7.07085 -28.3497 42.1949  255 255 255
-28.3983 -20.6512 32.8574  255 255 255
8.60327 -2.99243 34.5207  255 255 255
13.9381 -5.19058 32.2831  255 255 255
12.7383 -3.21004 31.9637  255 255 255
5.08648 -27.8969 41.3638  255 255 255
19.8165 -15.4243 30.9527  255 255 255
8.58922 -2.98378 34.5876  255 255 255
25.6458 -17.8485 28.3628  255 255 255
16.735 -25.2243 38.092  255 255 255
-4.61492 -32.9104 42.1738  255 255 255
1.2109 -31.2061 43.2378  255 255 255
-7.83721 -15.4401 39.2904  255 255 255
-15.3061 -17.3179 35.2755  255 255 255
13.6226 -12.3767 35.0098  255 255 255
5.40462 -10.9193 39.0324  255 255 255
55.4996 13.2782 -10.5344  255 255 255
-7.93992 -21.1664 38.5775  255 255 255
18.3095 -24.5283 37.2008  255 255 255
-79.6533 -47.362 22.3452  255 255 255
27.0895 -34.8764 23.7527  255 255 255
16.8822 -27.3586 40.7005  255 255 255
-12.0781 -20.8624 38.6285  255 255 255
59.9261 -6.04428 -11.9036  255 255 255
8.64268 1.10853 31.1383  255 255 255
17.0044 -25.911 38.9547  255 255 255
28.0824 -12.3195 21.2573  255 255 255
-10.0415 -20.4038 37.8951  255 255 255
20.6578 -15.0132 30.0188  255 255 255
28.5268 -5.69994 12.2425  255 255 255
1.72195 -27.9549 41.6165  255 255 255
20.5461 -34.9501 30.0202  255 255 255
0.87208 -22.638 40.6327  255 255 255
-21.7168 -23.8143 36.6136  255 255 255
-70.9091 -9.9876 -26.7512  255 255 255
16.4388 -6.92917 30.8735  255 255 255
13.1983 -32.8042 37.4015  255 255 255
6.01298 -8.45809 37.83  255 255 255
3.95498 -16.9069 39.2635  255 255 255
-25.2293 -5.44154 18.5491  255 255 255
-29.675 22.368 -66.7054  255 255 255
10.9749 -4.78924 33.8126  255 255 255
-3.07145 -33.5976 41.2115  255 255 255
-9.20673 -28.7756 42.8764  255 255 255
63.035 -14.1832 -9.57232  255 255 255
57.9458 -12.1227 -19.5673  255 255 255
10.3143 -19.999 36.949  255 255 255
25.1935 -21.492 32.8275  255 255 255
11.1709 -9.95026 36.278  255 255 255
55.4797 13.2751 -10.4414  255 255 255
17.2305 -17.7765 34.1584  255 255 255
65.9115 -13.9426 -1.91709  255 255 255
-44.112 -54.5245 31.3461  255 255 255
14.8599 -9.58928 33.379  255 255 255
10.4109 -31.5409 40.3914  255 255 255
-20.2098 -13.3671 30.5195  255 255 255
15.6715 -13.5213 33.2445  255 255 255
11.3663 -0.912918 31.2284  255 255 255
26.1878 -17.04 27.4423  255 255 255
11.3664 -0.912916 31.2283  255 255 255
-38.4367 -51.1239 26.8804  255 255 255
-29.5654 -2.97579 9.71655  255 255 255
-30.8421 24.2794 -69.1956  255 255 255
-12.9833 -20.5844 38.2443  255 255 255
11.5038 -6.28204 34.5661  255 255 255
3.00886 -10.3315 38.7294  255 255 255
1.55657 -10.3491 39.0653  255 255 255
9.53121 -5.87827 35.1922  255 255 255
-2.88541 -28.127 42.193  255 255 255
25.1187 -31.5333 25.8003  255 255 255
26.2646 -16.1088 26.2826  255 255 255
16.3124 -12.114 32.2448  255 255 255
-71.8194 -8.76061 -29.2788  255 255 255
-14.1955 -19.8802 37.4792  255 255 255
26.1205 -15.4402 25.4398  255 255 255
-1.93393 -29.0729 43.2665  255 255 255
17.87 -23.2743 35.7557  255 255 255
7.16924 -10.4056 37.9398  255 255 255
6.54279 -13.9223 38.7922  255 255 255
30.0669 -13.5301 21.9085  255 255 255
16.5503 -12.6846 32.375  255 255 255
25.0555 -21.3106 32.6139  255 255 255
-6.38489 -3.41712 36.6168  255 255 255
6.83642 -21.576 38.8545  255 255 255
6.07932 -46.7727 36.3179  255 255 255
-8.23183 -21.8708 39.9863  255 255 255
-12.0394 -27.8047 41.7252  255 255 255
-5.31229 -9.47552 39.2382  255 255 255
14.1827 -12.3389 34.4742  255 255 255
5.80833 -21.6786 39.3193  255 255 255
-13.4777 -24.7131 38.3672  255 255 255
10.9749 -4.78925 33.8125  255 255 255
-25.9593 -3.49331 15.8816  255 255 255
5.51022 -21.8345 39.756  255 255 255
29.2122 22.0395 -65.6507  255 255 255
58.7589 5.10378 -6.87229  255 255 255
58.6919 5.09791 -6.7077  255 255 255
3.90393 7.75069 22.9032  255 255 255
3.21026 7.53565 22.585  255 255 255
-0.609253 7.56364 21.5091  255 255 255
-0.535889 7.02602 20.636  255 255 255
57.705 3.01211 -11.8955  255 255 255
-2.67524 -4.39992 37.8217  255 255 255
63.9894 -18.342 -9.4652  255 255 255
5.92748 -9.94724 38.3925  255 255 255
1.28818 -11.0024 39.7151  255 255 255
-72.6595 -9.06835 -27.7911  255 255 255
2.86739 -25.2729 40.8763  255 255 255
-21.3045 -23.71 36.5819  255 255 255
47.6982 -46.1668 21.1099  255 255 255
46.9426 -50.8897 30.6909  255 255 255
2.44656 7.74689 22.2689  255 255 255
5.51488 6.48096 23.4936  255 255 255
-4.10916 6.16845 24.6527  255 255 255
-6.54177 6.35459 23.6114  255 255 255
25.0361 0.0584146 4.53239  255 255 255
28.6626 -6.22442 12.871  255 255 255
4.84081 -4.55703 36.7725  255 255 255
64.0234 -12.0395 -5.22166  255 255 255
58.1667 -11.7761 -20.7402  255 255 255
-46.6127 -6.71057 -29.6887  255 255 255
64.6019 -19.835 -9.51448  255 255 255
7.66714 -22.0189 39.5936  255 255 255
-16.0652 -25.1174 38.3788  255 255 255
55.0383 -41.4533 14.8115  255 255 255
40.4033 -53.1776 31.1198  255 255 255
-39.6008 -51.3819 27.2824  255 255 255
-10.8203 2.15298 30.4095  255 255 255
64.753 -18.4286 -7.76  255 255 255
-40.7854 -51.3019 27.1345  255 255 255
-33.5219 13.7531 -57.3682  255 255 255
64.6807 -29.1876 -0.399294  255 255 255
52.1427 -41.8407 15.5295  255 255 255
60.6634 -9.33692 -11.7466  255 255 255
-19.0253 -4.55471 29.2076  255 255 255
-13.6176 -7.00982 35.0027  255 255 255
1.17859 -13.0404 40.1663  255 255 255
-5.90718 6.11664 23.552  255 255 255
2.94718 -18.432 39.1342  255 255 255
13.2013 -21.5883 37.7401  255 255 255
-35.2215 -53.029 29.8733  255 255 255
-18.2374 -10.5472 32.408  255 255 255
8.57525 -12.566 37.937  255 255 255
-69.1027 -11.6969 -24.433  255 255 255
-86.8491 34.8509 -46.4018  255 255 255
-78.3252 36.5839 -50.7395  255 255 255
-61.0701 -23.6454 -7.96034  255 255 255
-45.201 -4.74137 -32.7352  255 255 255
-9.71328 -23.402 40.3471  255 255 255
67.398 -25.1696 -5.91452  255 255 255
-13.8963 -17.3365 36.3139  255 255 255
-8.02001 -16.103 39.4778  255 255 255
59.417 4.65509 -5.41911  255 255 255
-10.9727 -18.7414 37.6328  255 255 255
-11.6686 -12.1941 37.5927  255 255 255
-14.8855 -18.0459 35.4922  255 255 255
61.9929 -9.24769 -7.5733  255 255 255
56.2226 17.2393 -6.17643  255 255 255
62.3812 23.1048 -38.1617  255 255 255
62.6046 -12.1109 -9.26341  255 255 255
-8.73652 -7.41546 37.5605  255 255 255
63.5321 -12.4193 -6.52041  255 255 255
-13.8302 60.836 -75.4659  255 255 255
-5.3747 30.1316 -75.9325  255 255 255
-19.9136 10.6335 -51.5352  255 255 255
-35.0066 11.2437 -52.4886  255 255 255
-34.0573 9.80724 -48.865  255 255 255
-5.62949 -3.29965 36.7265  255 255 255
-26.058 60.8537 -68.4412  255 255 255
45.8089 74.7456 -103.176  255 255 255
-0.441478 -3.80661 37.3782  255 255 255
-20.0633 12.2395 -53.4047  255 255 255
-41.3235 41.5996 -71.8957  255 255 255
-42.0257 16.9812 -60.4933  255 255 255
-19.5563 -13.0308 31.3098  255 255 255
-7.74407 -13.6939 39.0205  255 255 255
-5.4412 50.1415 -88.7188  255 255 255
-1.50529 -8.06765 39.2656  255 255 255
-13.2702 -5.03371 34.5081  255 255 255
-32.1908 10.4781 -50.8316  255 255 255
-17.618 -14.0799 33.5776  255 255 255
-80.6894 12.4539 -54.9057  255 255 255
-118.119 -11.7948 -23.4384  255 255 255
-118.931 -12.8834 -23.709  255 255 255
-75.7575 4.70929 -46.3116  255 255 255
-0.966224 -10.6928 39.869  255 255 255
-11.6354 2.59133 29.0494  255 255 255
-16.5577 23.6771 -68.0543  255 255 255
-25.1262 1.63866 3.62739  255 255 255
-7.44238 -11.1184 39.096  255 255 255
-8.61069 -9.9079 38.4183  255 255 255
-10.0991 -15.3931 38.4395  255 255 255
-7.7614 -13.6627 39.3327  255 255 255
-47.3398 45.0126 -65.1273  255 255 255
-12.9316 -13.966 37.0113  255 255 255
-39.1631 15.6405 -58.8685  255 255 255
-39.1112 15.6125 -58.8309  255 255 255
2.03126 -11.4984 39.8025  255 255 255
3.9024 -13.2295 39.5267  255 255 255
-4.62294 -17.5813 39.8119  255 255 255
37.7276 64.1804 -106.282  255 255 255
-32.732 -7.26118 15.137  255 255 255
-16.6253 -5.47578 32.1471  255 255 255
2.70309 -20.1455 38.8592  255 255 255
66.9198 72.4514 -117.684  255 255 255
-11.3026 -19.6095 37.2294  255 255 255
-17.4353 -3.26405 29.9556  255 255 255
1.56705 -14.1777 40.4219  255 255 255
3.23756 -17.1825 39.2418  255 255 255
-16.5528 -17.0046 34.4231  255 255 255
66.4632 -15.9158 -1.47361  255 255 255
-19.5396 60.3728 -71.7641  255 255 255
-25.9321 -5.62878 18.6929  255 255 255
-8.81034 -21.4485 39.3031  255 255 255
-2.24973 -3.47016 37.0894  255 255 255
50.2906 -51.9221 28.3249  255 255 255
-22.9373 60.2595 -69.6012  255 255 255
-2.92935 -3.24609 36.986  255 255 255
6.89848 -12.1336 38.2923  255 255 255
14.1483 -19.5034 36.1909  255 255 255
-27.9407 41.3656 -80.804  255 255 255
-28.3422 28.6395 -74.6515  255 255 255
-6.59534 -14.3005 39.5304  255 255 255
6.80937 -11.6141 38.2987  255 255 255
1.8963 -14.7708 39.9029  255 255 255
58.3323 3.81561 -9.21958  255 255 255
61.5424 -2.84126 -5.35914  255 255 255
66.108 -14.0885 -1.49356  255 255 255
-11.9246 -15.5228 37.5902  255 255 255
-9.18687 -20.6737 38.3025  255 255 255
-21.0522 -23.107 36.045  255 255 255
-4.91803 -22.0088 40.0031  255 255 255
59.2426 0.238605 -9.31847  255 255 255
6.73895 -17.8388 38.36  255 255 255
-27.3121 -21.6164 33.945  255 255 255
55.4233 12.6302 -9.69384  255 255 255
5.02848 -16.193 39.377  255 255 255
-11.2551 -3.83029 34.7546  255 255 255
57.7924 10.9465 -5.57551  255 255 255
1.59617 -29.5678 43.6545  255 255 255
-79.2926 33.0221 -59.9972  255 255 255
-94.7703 36.9754 -39.7719  255 255 255
-94.4638 36.9179 -42.036  255 255 255
-82.1781 32.9013 -58.3378  255 255 255
-33.6996 -7.31259 15.1061  255 255 255
28.663 37.3223 -85.4599  255 255 255
27.0792 35.6335 -82.936  255 255 255
33.5848 12.078 -52.3486  255 255 255
8.17087 -5.18135 35.644  255 255 255
8.18652 -5.18606 35.5608  255 255 255
11.2701 -6.65659 34.8643  255 255 255
8.59083 -9.20087 37.147  255 255 255
6.64971 -10.7996 38.2471  255 255 255
13.7158 -12.7978 34.8535  255 255 255
4.7237 -14.3908 39.3358  255 255 255
3.9605 -17.4889 39.2565  255 255 255
27.1466 -14.4193 24.0145  255 255 255
-20.2746 -24.5972 37.5746  255 255 255
13.0944 -20.8851 37.8778  255 255 255
18.3401 -23.6672 36.0436  255 255 255
-32.7043 -58.8155 36.7173  255 255 255
-33.8437 -59.979 38.3057  255 255 255
59.2539 24.2255 -45.431  255 255 255
45.4078 -35.6294 7.25476  255 255 255
-2.10066 -3.43617 36.9958  255 255 255
22.6059 -20.0735 31.0437  255 255 255
25.2996 -20.9374 32.7538  255 255 255
4.76022 -5.88503 37.4323  255 255 255
4.95692 -6.92579 37.8201  255 255 255
3.89746 -8.42692 38.2225  255 255 255
2.88224 -2.57276 36.0051  255 255 255
14.4346 -6.51961 32.6865  255 255 255
-3.77215 -17.3025 39.7542  255 255 255
-5.99725 -3.38226 36.7479  255 255 255
6.16631 -12.0438 38.7011  255 255 255
4.55833 -8.73072 38.6129  255 255 255
10.6509 -9.11452 35.9381  255 255 255
-1.1157 -11.6868 40.0431  255 255 255
-3.5502 -15.3535 40.0098  255 255 255
-9.7667 -20.1031 37.7948  255 255 255
-30.7545 21.0279 -65.1988  255 255 255
-9.19633 -14.5172 38.7994  255 255 255
-80.8191 5.05515 -45.6165  255 255 255
-18.2132 -25.6268 39.1455  255 255 255
-15.9575 -26.3571 39.7339  255 255 255
-30.5348 -15.8449 26.9673  255 255 255
-55.9962 -6.45104 -30.2456  255 255 255
-85.8492 -60.6585 42.5055  255 255 255
-48.9224 -10.8603 -24.5401  255 255 255
-77.8035 5.12704 -46.2472  255 255 255
-56.1303 -5.79896 -31.2257  255 255 255
-86.0898 -54.6252 30.4991  255 255 255
10.9153 -6.07556 34.8413  255 255 255
5.99768 68.4447 -82.3276  255 255 255
3.78451 -14.1039 39.4609  255 255 255
-88.6187 25.9042 -53.4468  255 255 255
6.3898 68.7071 -82.0618  255 255 255
15.5912 -25.7078 38.5847  255 255 255
-6.67672 -29.0391 43.1871  255 255 255
-45.5024 54.4057 -59.4684  255 255 255
-27.3412 17.1566 -59.4762  255 255 255
-3.78257 -17.2862 39.7967  255 255 255
-22.3872 -59.4185 37.9071  255 255 255
1.75354 72.2476 -76.002  255 255 255
-21.1713 -20.1503 34.1507  255 255 255
-8.09834 -6.50906 37.7469  255 255 255
61.7335 -16.7918 -14.401  255 255 255
-39.5567 -54.6513 31.4851  255 255 255
-23.2572 -62.3664 42.2206  255 255 255
40.4119 64.0972 -107.931  255 255 255
37.7348 62.9086 -107.214  255 255 255
-22.1721 60.7291 -69.6184  255 255 255
-26.9281 59.5521 -68.0563  255 255 255
58.6101 26.9417 -44.5274  255 255 255
3.47831 -10.3994 39.4308  255 255 255
-8.23067 -15.5195 39.1896  255 255 255
-24.6465 -61.5231 40.4592  255 255 255
7.17045 66.9671 -84.2954  255 255 255
-12.784 62.3063 -74.6736  255 255 255
-12.7658 62.3704 -74.9356  255 255 255
32.0672 58.7772 -106.88  255 255 255
56.3477 40.4203 -89.1915  255 255 255
25.0703 -20.8951 32.2246  255 255 255
-14.924 -19.5554 37.0822  255 255 255
5.75752 25.3979 -70.7576  255 255 255
-0.513529 18.5757 -61.2954  255 255 255
-18.873 -10.9002 31.8369  255 255 255
-20.8406 -16.4322 32.9986  255 255 255
-88.3966 -47.7859 22.4158  255 255 255
12.3666 61.491 -91.782  255 255 255
-21.6921 62.1959 -69.4626  255 255 255
-48.861 47.863 -62.0884  255 255 255
58.1731 -40.0008 13.2739  255 255 255
57.1647 -39.2995 12.2392  255 255 255
-45.7193 54.6506 -58.9082  255 255 255
-58.3134 -3.23306 -34.2666  255 255 255
5.90608 -10.5752 38.5677  255 255 255
-66.8275 -12.6153 -22.7872  255 255 255
31.1093 51.2513 -102.626  255 255 255
57.5788 28.3106 -47.2196  255 255 255
-5.43942 -1.37802 35.4277  255 255 255
-14.824 -0.267692 29.779  255 255 255
-3.90907 -3.73749 37.2651  255 255 255
-3.90907 -3.73749 37.2651  255 255 255
-0.984028 -4.5542 37.8256  255 255 255
12.3137 -10.478 35.4575  255 255 255
61.2103 -15.7404 -15.2862  255 255 255
3.06258 -9.39326 39.0125  255 255 255
61.7316 -16.7876 -14.326  255 255 255
-4.18232 -9.34946 39.4401  255 255 255
14.1795 -13.0502 34.5534  255 255 255
58.0559 -18.0999 -13.0671  255 255 255
18.5014 -16.376 32.2549  255 255 255
0.145177 -13.5711 40.0986  255 255 255
25.1203 -20.5143 31.6192  255 255 255
19.3867 -21.0755 32.9266  255 255 255
-25.3858 -10.2028 24.9361  255 255 255
2.86205 -19.4675 38.9882  255 255 255
0.19396 -18.9598 39.4281  255 255 255
-23.5862 -12.777 28.2027  255 255 255
-23.5973 -12.7667 28.2891  255 255 255
-4.46761 -19.8774 39.1255  255 255 255
-18.4402 -17.2547 34.1654  255 255 255
-11.4738 -19.2852 37.2416  255 255 255
-27.5586 -20.4904 32.4154  255 255 255
-20.7766 -22.5995 35.1094  255 255 255
-21.7142 -23.476 36.3484  255 255 255
-18.4367 -26.7868 40.62  255 255 255
-7.09941 -30.3428 44.7556  255 255 255
61.2673 0.937605 -3.17276  255 255 255
63.4411 -18.0513 -9.13954  255 255 255
67.2552 -20.218 -0.378418  255 255 255
61.0126 -17.2867 -15.403  255 255 255
4.14022 -12.6983 39.4282  255 255 255
19.4867 -22.1967 34.4717  255 255 255
-18.3947 -19.4997 36.6255  255 255 255
13.7578 -32.9167 37.0457  255 255 255
-23.0108 -23.4576 36.1695  255 255 255
56.0025 14.1713 -8.84426  255 255 255
60.7967 -3.58486 -7.81245  255 255 255
60.9338 -11.8639 -11.1625  255 255 255
62.9937 -18.6719 -12.2162  255 255 255
-4.21538 -15.4678 39.8294  255 255 255
-26.5373 -22.5103 34.6121  255 255 255
6.61711 -60.1813 38.4276  255 255 255
59.5239 -4.79652 -12.2487  255 255 255
59.8626 -7.44289 -13.3629  255 255 255
-20.949 -15.4008 31.9264  255 255 255
-19.0469 -15.9341 32.4432  255 255 255
-13.9173 -20.6132 38.2713  255 255 255
-23.3334 -20.6648 32.5935  255 255 255
50.5192 -48.8749 25.267  255 255 255
40.4687 -48.7314 24.6485  255 255 255
62.3436 23.0527 -37.3028  255 255 255
-10.3631 -21.3713 39.2261  255 255 255
47.6531 -43.8581 17.832  255 255 255
41.8406 -51.077 27.7946  255 255 255
-6.29225 -20.6807 38.7255  255 255 255
-14.2667 -27.731 41.9326  255 255 255
-23.5454 59.7157 -69.8924  255 255 255
34.3078 66.6485 -102.263  255 255 255
57.3698 66.7757 -116.176  255 255 255
4.76954 66.2653 -83.525  255 255 255
57.4116 80.541 -105.153  255 255 255
-49.2116 -28.128 -3.24385  255 255 255
58.6386 -6.10338 -15.6  255 255 255
0.0660638 -9.95024 39.6842  255 255 255
-17.5326 -22.9842 36.5293  255 255 255
59.4418 -10.3704 -16.1958  255 255 255
60.828 -15.4286 -16.9582  255 255 255
-74.74 21.1098 -66.47  255 255 255
60.9022 -16.3854 -15.8223  255 255 255
-68.4008 -11.5646 -23.7215  255 255 255
-32.8494 -57.1331 34.6842  255 255 255
-35.7182 -58.9962 37.1963  255 255 255
64.0936 -11.841 -4.08175  255 255 255
63.1855 -14.7081 -8.97189  255 255 255
68.5866 -26.8878 -3.68585  255 255 255
-15.5745 -18.2548 35.2869  255 255 255
60.6425 -43.3779 17.0637  255 255 255
-34.1168 -58.8112 36.7673  255 255 255
61.9375 24.8997 -36.9437  255 255 255
62.4662 -4.99708 -4.41433  255 255 255
54.5997 -44.1792 19.6707  255 255 255
-12.3013 -14.5678 37.2067  255 255 255
58.5223 29.9383 -45.1192  255 255 255
4.27157 -11.1104 39.2275  255 255 255
-9.53654 -3.94004 35.9006  255 255 255
-10.776 -10.0394 37.7702  255 255 255
41.3143 -45.1518 19.6844  255 255 255
-17.3032 -24.4424 37.3938  255 255 255
63.0692 19.3877 -37.3992  255 255 255
59.7585 -13.8769 -16.905  255 255 255
68.6582 -26.0958 -2.79289  255 255 255
-13.8991 -16.9157 36.2907  255 255 255
-5.85479 -20.0241 38.9592  255 255 255
-4.06799 -16.772 39.8653  255 255 255
59.9346 -13.073 -15.6486  255 255 255
30.7559 72.4943 -94.6829  255 255 255
-5.25214 67.7003 -74.8152  255 255 255
44.6725 83.8177 -96.5193  255 255 255
40.3148 68.7214 -104.236  255 255 255
56.5112 28.8832 -49.0274  255 255 255
63.1853 -10.1737 -5.9333  255 255 255
12.7394 -7.14919 34.1402  255 255 255
3.97618 -8.99379 38.8302  255 255 255
-8.47222 -11.9822 38.9146  255 255 255
1.89109 -17.1241 39.6812  255 255 255
13.6005 -20.2168 37.0982  255 255 255
-29.9031 -17.6858 29.0518  255 255 255
39.3465 67.9914 -104.34  255 255 255
60.5816 24.8976 -40.6518  255 255 255
-26.0749 43.8771 -80.2097  255 255 255
5.29956 -8.6717 38.2672  255 255 255
62.1171 -17.3651 -14.1347  255 255 255
-10.9527 -8.19656 37.1527  255 255 255
4.10299 -11.9747 39.3476  255 255 255
10.2646 -22.9793 38.7324  255 255 255
-9.50436 -29.288 43.2989  255 255 255
59.792 68.9673 -115.588  255 255 255
4.5517 6.05654 23.1401  255 255 255
6.84603 4.97463 25.5465  255 255 255
13.8364 -10.1682 34.1984  255 255 255
-8.24047 -9.40958 38.5416  255 255 255
-12.9484 -9.57708 36.5471  255 255 255
-4.21461 -15.4767 40.0001  255 255 255
59.3177 81.2331 -106.016  255 255 255
16.0271 67.0097 -82.0039  255 255 255
8.10079 1.43487 31.0198  255 255 255
58.8966 -4.71389 -14.5773  255 255 255
59.8482 -11.9092 -15.9646  255 255 255
56.8803 31.9068 -45.3954  255 255 255
-21.6015 -7.58482 27.2613  255 255 255
-2.10582 -13.2645 40.0389  255 255 255
-27.4967 53.0177 -72.4645  255 255 255
61.186 23.626 -40.2117  255 255 255
56.228 2.60318 -16.4681  255 255 255
-4.15864 -21.4976 39.2202  255 255 255
-37.2546 -58.4963 36.5459  255 255 255
-3.70764 -6.24798 38.738  255 255 255
62.3422 -7.08393 -6.01762  255 255 255
-5.4582 -6.29213 38.2472  255 255 255
-8.03834 -20.504 38.3035  255 255 255
-7.56112 -16.9184 39.1703  255 255 255
-7.46428 -20.9426 38.6264  255 255 255
-8.93039 -24.4563 40.3156  255 255 255
59.5429 4.65119 -5.70949  255 255 255
39.7146 64.4361 -107.256  255 255 255
-45.1271 54.8338 -59.3003  255 255 255
57.3585 6.58325 -9.68871  255 255 255
-11.3943 -7.93968 36.8792  255 255 255
-4.65988 -10.7774 39.6956  255 255 255
68.8855 -27.2985 -3.28607  255 255 255
69.7867 73.6 -121.539  255 255 255
-14.8345 -14.6359 35.9124  255 255 255
-14.8578 -18.7076 35.9614  255 255 255
-32.5861 9.25584 -50.3632  255 255 255
67.7269 -20.4904 -1.55254  255 255 255
-10.8995 -20.1888 37.7956  255 255 255
-5.03934 -61.6663 41.335  255 255 255
-10.5192 -19.7551 37.5581  255 255 255
-5.90835 -61.0257 39.7939  255 255 255
66.4798 68.2072 -121.187  255 255 255
66.1402 66.3644 -120.926  255 255 255
-12.148 -1.27777 32.3681  255 255 255
9.98109 -20.944 37.9654  255 255 255
4.51329 -29.0991 43.214  255 255 255
-23.8661 -12.5517 27.7376  255 255 255
0.438698 -12.8923 39.9011  255 255 255
-6.28143 -11.5013 39.4527  255 255 255
-7.44238 -11.1184 39.096  255 255 255
41.343 -50.7683 27.1454  255 255 255
-10.6191 -11.2793 37.907  255 255 255
-12.0644 -12.0121 37.4215  255 255 255
-9.18782 -12.4065 38.7162  255 255 255
-13.447 -11.5353 36.5243  255 255 255
-6.42567 -9.16935 39.0868  255 255 255
-6.40756 -9.17831 38.939  255 255 255
-3.70093 -12.8382 40.0041  255 255 255
-26.1104 -19.5325 31.0331  255 255 255
-1.84595 -15.6334 40.1054  255 255 255
67.502 -23.5985 -4.44258  255 255 255
60.4359 0.998057 -5.13283  255 255 255
-13.6225 -11.4458 36.4726  255 255 255
-8.85346 -17.886 38.7373  255 255 255
11.4006 -10.4122 36.0335  255 255 255
-5.46567 -5.26491 37.8783  255 255 255
-1.02275 -5.15208 38.1761  255 255 255
56.5466 0.125572 -16.4556  255 255 255
-16.6482 -21.7325 37.6929  255 255 255
62.5746 -11.3789 -8.6768  255 255 255
3.81097 -7.25404 38.3163  255 255 255
-9.4981 -17.6049 38.446  255 255 255
52.1329 -38.6916 11.5795  255 255 255
-25.5765 -58.7945 36.9661  255 255 255
1.4623 -18.0346 39.4883  255 255 255
-18.0402 63.2947 -70.5068  255 255 255
68 -20.3282 -0.750475  255 255 255
-8.78133 -16.526 38.8515  255 255 255
-15.7649 -14.7293 35.1661  255 255 255
-11.7746 -15.1923 37.7051  255 255 255
59.3188 6.00895 -5.07425  255 255 255
-3.87675 66.8219 -77.4749  255 255 255
11.5475 -37.8035 34.8891  255 255 255
-25.5162 -6.42829 20.0291  255 255 255
6.65538 -2.61702 34.9936  255 255 255
-7.04006 -6.31906 37.9371  255 255 255
-19.4125 -18.0614 35.1441  255 255 255
26.9436 20.181 -63.218  255 255 255
-0.279751 -31.1158 43.3676  255 255 255
58.5969 -3.37191 -13.9911  255 255 255
-47.9153 -7.16932 -29.6647  255 255 255
5.29489 -8.66507 38.2747  255 255 255
-14.2563 -27.99 42.0141  255 255 255
-1.83186 15.8971 -57.9961  255 255 255
-27.1326 -34.9049 24.4342  255 255 255
-51.0164 -6.27698 -30.1039  255 255 255
3.99582 -8.99977 38.7178  255 255 255
56.4889 -43.0736 17.509  255 255 255
67.2307 -26.3869 -3.56013  255 255 255
-35.7085 -58.9817 37.259  255 255 255
-7.41116 -6.85377 38.0517  255 255 255
60.5218 25.6059 -40.3857  255 255 255
-30.857 -59.5461 37.9088  255 255 255
63.2854 -14.7011 -9.10756  255 255 255
-33.8851 -59.0802 37.29  255 255 255
58.0859 -1.62542 -13.867  255 255 255
-33.1167 -58.447 36.6236  255 255 255
-33.7559 -58.2979 36.1019  255 255 255
-24.9071 -31.491 29.5584  255 255 255
-15.7252 -19.5212 37.037  255 255 255
-9.94804 -29.0665 43.3325  255 255 255
-19.5981 -25.2674 38.309  255 255 255
67.0504 -23.8341 -6.1381  255 255 255
-11.7985 -36.4678 36.751  255 255 255
